 -8.40  -8.48  -8.62  -8.78  -8.93  -9.06  -9.19  -9.30  -9.39  -9.47  -9.50  -9.53  -9.58  -9.59  -9.68 -10.56 -12.69 -15.51 -17.00 -16.63 -16.32 -15.82 -14.74 -13.65 -14.04 -14.77 -13.78 -11.96  -9.82  -8.37  -7.46  -6.75  -6.10  -5.81  -5.88  -6.09  -6.29  -6.47  -6.63  -6.85  -6.97  -6.51  -5.51  -5.09  -5.44  -5.98  -6.50  -6.19  -5.02  -3.91  -2.81  -1.52  -0.20   0.86   1.49   2.08   2.66   3.18   3.68   4.18   4.71   5.27   5.84   6.40   6.90   7.31   7.66   7.99   8.35   8.75   9.19   9.66 
 -8.45  -8.53  -8.67  -8.81  -8.92  -9.02  -9.10  -9.14  -9.19  -9.23  -9.23  -9.26  -9.33  -9.37  -9.59 -10.67 -12.90 -15.66 -16.80 -16.51 -16.24 -15.61 -14.51 -13.58 -14.17 -14.75 -13.54 -11.62  -9.52  -8.25  -7.37  -6.63  -6.03  -5.79  -5.88  -6.08  -6.28  -6.47  -6.67  -6.88  -6.97  -6.44  -5.46  -5.12  -5.50  -6.07  -6.57  -6.06  -4.84  -3.75  -2.61  -1.31   0.22   1.05   1.58   2.17   2.74   3.25   3.76   4.27   4.81   5.37   5.92   6.47   6.94   7.34   7.68   8.02   8.38   8.79   9.23   9.71 
 -8.47  -8.54  -8.64  -8.74  -8.79  -8.83  -8.86  -8.89  -8.94  -8.99  -9.03  -9.10  -9.19  -9.25  -9.50 -10.71 -13.15 -15.77 -16.63 -16.42 -16.13 -15.40 -14.25 -13.47 -14.24 -14.66 -13.27 -11.31  -9.30  -8.17  -7.29  -6.53  -5.98  -5.77  -5.86  -6.07  -6.27  -6.48  -6.70  -6.87  -6.97  -6.44  -5.47  -5.15  -5.57  -6.19  -6.59  -5.88  -4.64  -3.59  -2.45  -1.15   0.31   1.12   1.66   2.25   2.82   3.33   3.83   4.35   4.89   5.46   6.01   6.53   6.98   7.36   7.69   8.04   8.42   8.83   9.29   9.77 
 -8.46  -8.48  -8.48  -8.54  -8.59  -8.63  -8.69  -8.76  -8.83  -8.91  -9.01  -9.09  -9.18  -9.23  -9.44 -10.76 -13.46 -15.87 -16.53 -16.34 -16.06 -15.24 -13.99 -13.40 -14.28 -14.45 -12.88 -10.98  -9.14  -8.12  -7.25  -6.48  -5.91  -5.73  -5.84  -6.07  -6.28  -6.48  -6.66  -6.84  -6.94  -6.39  -5.44  -5.21  -5.67  -6.31  -6.53  -5.63  -4.42  -3.43  -2.30  -1.01   0.40   1.19   1.73   2.33   2.89   3.39   3.90   4.42   4.97   5.54   6.08   6.58   7.01   7.37   7.71   8.06   8.45   8.88   9.35   9.84 
 -8.46  -8.41  -8.32  -8.42  -8.56  -8.68  -8.82  -8.96  -9.07  -9.18  -9.28  -9.37  -9.47  -9.53  -9.84 -11.39 -14.01 -16.13 -16.55 -16.26 -16.05 -15.16 -13.92 -13.65 -14.41 -14.18 -12.34 -10.51  -9.03  -8.07  -7.22  -6.49  -5.90  -5.70  -5.82  -6.06  -6.28  -6.47  -6.65  -6.81  -6.84  -6.22  -5.33  -5.26  -5.78  -6.40  -6.41  -5.37  -4.21  -3.27  -2.17  -0.94   0.45   1.25   1.81   2.40   2.95   3.45   3.96   4.48   5.04   5.60   6.13   6.62   7.03   7.38   7.72   8.09   8.49   8.94   9.42   9.92 
 -8.49  -8.45  -8.34  -8.45  -8.63  -8.79  -8.96  -9.15  -9.32  -9.50  -9.68  -9.85 -10.01 -10.13 -10.61 -12.42 -14.94 -16.81 -16.82 -16.23 -16.07 -15.12 -14.19 -14.21 -14.15 -13.09 -11.33  -9.97  -8.96  -8.01  -7.19  -6.47  -5.88  -5.66  -5.78  -6.06  -6.29  -6.48  -6.67  -6.82  -6.79  -6.11  -5.27  -5.32  -5.89  -6.44  -6.26  -5.14  -4.03  -3.08  -2.01  -0.87   0.51   1.31   1.88   2.46   3.01   3.51   4.01   4.54   5.10   5.66   6.18   6.65   7.04   7.39   7.73   8.11   8.54   9.00   9.49  10.01 
 -8.50  -8.50  -8.40  -8.43  -8.59  -8.75  -8.91  -9.08  -9.26  -9.45  -9.66  -9.87 -10.08 -10.30 -11.04 -12.99 -15.23 -16.95 -17.02 -16.33 -16.14 -15.14 -14.30 -13.91 -13.01 -11.64 -10.50  -9.75  -8.92  -7.95  -7.16  -6.44  -5.84  -5.64  -5.76  -6.02  -6.26  -6.46  -6.63  -6.82  -6.73  -5.96  -5.23  -5.42  -6.01  -6.45  -6.10  -4.97  -3.86  -2.89  -1.85  -0.75   0.58   1.38   1.94   2.53   3.07   3.56   4.06   4.59   5.15   5.70   6.21   6.66   7.05   7.39   7.75   8.14   8.59   9.07   9.58  10.11 
 -8.49  -8.54  -8.46  -8.43  -8.55  -8.71  -8.88  -9.05  -9.22  -9.39  -9.58  -9.76  -9.95 -10.16 -10.84 -12.69 -14.90 -16.64 -16.99 -16.47 -16.13 -14.97 -13.87 -12.95 -11.88 -10.96 -10.31  -9.72  -8.92  -7.93  -7.12  -6.40  -5.81  -5.60  -5.72  -5.98  -6.22  -6.43  -6.61  -6.77  -6.59  -5.80  -5.21  -5.48  -6.08  -6.45  -5.97  -4.80  -3.70  -2.73  -1.69  -0.62   0.66   1.44   2.01   2.59   3.12   3.62   4.12   4.65   5.20   5.74   6.23   6.68   7.06   7.40   7.77   8.19   8.65   9.15   9.68  10.22 
 -8.47  -8.55  -8.51  -8.46  -8.52  -8.66  -8.85  -9.02  -9.19  -9.36  -9.53  -9.70  -9.87 -10.03 -10.58 -12.38 -14.85 -16.67 -17.16 -16.71 -16.01 -14.64 -13.29 -12.20 -11.44 -11.05 -10.59  -9.88  -8.97  -7.91  -7.07  -6.33  -5.76  -5.56  -5.68  -5.94  -6.18  -6.41  -6.60  -6.72  -6.45  -5.66  -5.22  -5.56  -6.12  -6.44  -5.83  -4.58  -3.53  -2.57  -1.53  -0.48   0.74   1.50   2.08   2.66   3.18   3.68   4.18   4.71   5.25   5.78   6.26   6.69   7.07   7.43   7.81   8.24   8.73   9.25   9.79  10.34 
 -8.44  -8.54  -8.56  -8.51  -8.52  -8.62  -8.80  -8.99  -9.16  -9.33  -9.50  -9.67  -9.83 -10.04 -10.68 -12.51 -15.20 -17.05 -17.46 -16.96 -16.01 -14.54 -13.16 -12.21 -11.79 -11.56 -11.00 -10.13  -9.02  -7.85  -7.00  -6.27  -5.71  -5.53  -5.64  -5.90  -6.15  -6.38  -6.59  -6.69  -6.33  -5.55  -5.27  -5.66  -6.17  -6.40  -5.66  -4.37  -3.35  -2.40  -1.35  -0.21   0.89   1.57   2.14   2.72   3.24   3.74   4.25   4.77   5.31   5.83   6.29   6.72   7.10   7.47   7.87   8.32   8.83   9.36   9.92  10.48 
 -8.41  -8.52  -8.59  -8.57  -8.55  -8.59  -8.74  -8.94  -9.13  -9.30  -9.47  -9.64  -9.79 -10.11 -11.05 -13.13 -15.75 -17.34 -17.55 -17.14 -16.30 -14.92 -13.78 -13.06 -12.74 -12.22 -11.30 -10.27  -9.03  -7.78  -6.93  -6.25  -5.69  -5.51  -5.62  -5.86  -6.13  -6.35  -6.58  -6.66  -6.21  -5.48  -5.36  -5.74  -6.19  -6.31  -5.46  -4.21  -3.20  -2.20  -1.18   0.19   1.11   1.63   2.21   2.78   3.30   3.80   4.31   4.84   5.38   5.89   6.34   6.76   7.15   7.53   7.95   8.42   8.95   9.50  10.06  10.64 
 -8.39  -8.49  -8.61  -8.62  -8.61  -8.61  -8.69  -8.88  -9.09  -9.27  -9.45  -9.60  -9.70 -10.07 -11.43 -14.07 -16.40 -17.31 -17.32 -17.20 -16.71 -15.51 -14.65 -14.30 -13.95 -12.90 -11.40 -10.18  -8.92  -7.72  -6.91  -6.23  -5.68  -5.49  -5.58  -5.83  -6.11  -6.35  -6.58  -6.57  -6.05  -5.43  -5.44  -5.78  -6.19  -6.25  -5.31  -4.08  -3.06  -2.05  -1.06   0.26   1.16   1.68   2.26   2.83   3.35   3.86   4.38   4.92   5.45   5.95   6.40   6.82   7.22   7.61   8.05   8.55   9.08   9.65  10.23  10.82 
 -8.37  -8.46  -8.59  -8.66  -8.66  -8.66  -8.68  -8.82  -9.04  -9.24  -9.41  -9.47  -9.45  -9.90 -11.78 -14.96 -17.02 -17.28 -17.14 -17.06 -16.61 -15.34 -14.51 -14.74 -14.58 -13.15 -11.39  -9.99  -8.64  -7.60  -6.92  -6.21  -5.68  -5.48  -5.55  -5.78  -6.06  -6.35  -6.56  -6.47  -5.91  -5.39  -5.52  -5.84  -6.21  -6.19  -5.19  -3.98  -2.94  -1.94  -0.96   0.32   1.19   1.72   2.31   2.88   3.40   3.91   4.44   4.99   5.53   6.03   6.47   6.90   7.32   7.72   8.18   8.69   9.25   9.83  10.41  11.01 
 -8.35  -8.43  -8.55  -8.66  -8.71  -8.71  -8.70  -8.79  -8.97  -9.19  -9.28  -9.11  -9.04  -9.75 -12.01 -15.03 -17.08 -17.38 -16.83 -16.51 -15.81 -14.42 -13.58 -14.17 -14.41 -13.03 -11.36  -9.87  -8.45  -7.49  -6.87  -6.16  -5.65  -5.46  -5.52  -5.73  -5.98  -6.34  -6.60  -6.47  -5.85  -5.39  -5.57  -5.86  -6.20  -6.09  -5.05  -3.86  -2.82  -1.82  -0.83   0.38   1.20   1.74   2.35   2.93   3.45   3.97   4.50   5.05   5.59   6.09   6.54   6.98   7.41   7.84   8.32   8.85   9.42  10.02  10.62  11.23 
 -8.32  -8.41  -8.52  -8.65  -8.74  -8.77  -8.75  -8.76  -8.83  -8.93  -8.97  -8.84  -8.91  -9.81 -12.05 -14.94 -17.29 -17.52 -16.65 -16.23 -15.32 -14.01 -13.35 -14.10 -14.44 -13.07 -11.40  -9.83  -8.51  -7.47  -6.78  -6.10  -5.60  -5.43  -5.50  -5.65  -5.83  -6.21  -6.57  -6.37  -5.65  -5.28  -5.58  -5.88  -6.21  -6.04  -4.93  -3.75  -2.70  -1.67  -0.62   0.48   1.20   1.75   2.37   2.97   3.50   4.02   4.56   5.11   5.65   6.15   6.60   7.06   7.51   7.96   8.47   9.03   9.62  10.23  10.84  11.46 
 -8.33  -8.39  -8.49  -8.62  -8.75  -8.79  -8.78  -8.78  -8.76  -8.75  -8.79  -8.78  -8.97 -10.15 -12.19 -14.80 -17.36 -17.42 -16.58 -16.22 -15.21 -13.88 -13.39 -14.33 -14.54 -13.07 -11.40  -9.74  -8.48  -7.40  -6.70  -6.04  -5.54  -5.42  -5.50  -5.59  -5.65  -5.86  -6.11  -5.88  -5.25  -5.14  -5.59  -5.92  -6.23  -6.00  -4.85  -3.67  -2.57  -1.70  -1.17  -0.36   0.33   1.59   2.40   3.01   3.55   4.07   4.60   5.15   5.69   6.19   6.65   7.12   7.60   8.08   8.62   9.20   9.82  10.45  11.07  11.71 
 -8.37  -8.42  -8.49  -8.59  -8.72  -8.78  -8.78  -8.80  -8.78  -8.74  -8.78  -8.82  -9.06 -10.45 -12.45 -15.05 -17.41 -17.11 -16.47 -16.24 -15.19 -13.81 -13.47 -14.60 -14.60 -12.98 -11.30  -9.61  -8.35  -7.29  -6.59  -5.95  -5.51  -5.44  -5.55  -5.62  -5.63  -5.69  -5.69  -5.31  -4.89  -5.12  -5.64  -5.96  -6.26  -5.96  -4.77  -3.56  -2.44  -1.87  -2.20  -1.80  -0.82   1.40   2.43   3.06   3.60   4.11   4.65   5.19   5.72   6.21   6.68   7.17   7.68   8.20   8.77   9.39  10.03  10.68  11.33  11.97 
 -8.31  -8.42  -8.51  -8.59  -8.70  -8.75  -8.75  -8.77  -8.78  -8.77  -8.83  -8.87  -9.09 -10.47 -12.69 -15.71 -17.53 -16.79 -16.37 -16.22 -15.12 -13.69 -13.52 -14.80 -14.63 -12.90 -11.17  -9.47  -8.20  -7.17  -6.46  -5.85  -5.49  -5.48  -5.65  -5.79  -5.87  -5.95  -5.76  -5.12  -4.69  -5.12  -5.69  -5.99  -6.29  -5.91  -4.66  -3.43  -2.31  -1.97  -2.82  -2.69  -0.88   1.49   2.48   3.11   3.64   4.16   4.68   5.22   5.74   6.23   6.71   7.22   7.76   8.32   8.93   9.58  10.25  10.93  11.59  12.26 
 -8.22  -8.37  -8.52  -8.59  -8.67  -8.70  -8.69  -8.72  -8.73  -8.76  -8.86  -8.93  -9.11 -10.38 -12.92 -16.38 -17.68 -16.62 -16.33 -16.18 -14.98 -13.53 -13.52 -14.91 -14.66 -12.85 -11.02  -9.34  -8.08  -7.07  -6.34  -5.75  -5.47  -5.53  -5.78  -6.03  -6.24  -6.41  -6.19  -5.35  -4.66  -5.03  -5.70  -5.99  -6.28  -5.84  -4.54  -3.31  -2.20  -1.88  -2.70  -2.52   0.39   1.87   2.54   3.16   3.69   4.20   4.71   5.24   5.75   6.24   6.73   7.26   7.84   8.44   9.09   9.78  10.49  11.19  11.88  12.56 
 -8.22  -8.33  -8.47  -8.55  -8.58  -8.58  -8.61  -8.65  -8.67  -8.74  -8.87  -8.95  -9.16 -10.55 -13.25 -16.63 -17.71 -16.59 -16.34 -16.13 -14.79 -13.37 -13.55 -14.97 -14.68 -12.79 -10.81  -9.21  -7.98  -6.99  -6.27  -5.68  -5.43  -5.56  -5.90  -6.21  -6.46  -6.58  -6.34  -5.55  -4.79  -5.06  -5.73  -6.03  -6.28  -5.73  -4.41  -3.22  -2.12  -1.79  -2.64  -2.47   0.49   1.96   2.62   3.22   3.73   4.23   4.74   5.26   5.77   6.26   6.76   7.31   7.92   8.56   9.26   9.99  10.74  11.47  12.18  12.88 
 -8.27  -8.35  -8.41  -8.43  -8.38  -8.35  -8.46  -8.60  -8.63  -8.71  -8.86  -8.95  -9.19 -10.80 -13.59 -16.58 -17.41 -16.45 -16.31 -16.03 -14.61 -13.27 -13.66 -15.06 -14.68 -12.70 -10.59  -9.09  -7.90  -6.93  -6.24  -5.67  -5.46  -5.60  -5.95  -6.28  -6.51  -6.58  -6.27  -5.56  -5.00  -5.35  -5.84  -6.10  -6.30  -5.64  -4.28  -3.09  -2.04  -1.45  -1.48  -0.81   1.06   2.07   2.70   3.28   3.78   4.26   4.76   5.28   5.78   6.28   6.79   7.37   8.01   8.70   9.44  10.22  11.00  11.77  12.50  13.22 
 -8.09  -8.26  -8.35  -8.37  -8.26  -8.17  -8.33  -8.57  -8.64  -8.72  -8.85  -8.90  -9.19 -10.79 -13.72 -16.44 -16.78 -16.18 -16.23 -15.87 -14.38 -13.16 -13.74 -15.04 -14.50 -12.56 -10.44  -8.95  -7.83  -6.87  -6.17  -5.67  -5.51  -5.68  -6.04  -6.34  -6.52  -6.57  -6.21  -5.50  -4.98  -5.38  -5.87  -6.11  -6.25  -5.51  -4.11  -2.97  -1.99  -1.05  -0.06   0.72   1.50   2.17   2.78   3.34   3.81   4.29   4.78   5.29   5.80   6.30   6.83   7.43   8.11   8.84   9.63  10.45  11.28  12.08  12.84  13.58 
 -8.06  -8.09  -8.17  -8.29  -8.26  -8.21  -8.32  -8.52  -8.65  -8.73  -8.83  -8.86  -9.20 -10.90 -13.76 -16.25 -16.42 -16.05 -16.14 -15.74 -14.19 -13.13 -13.94 -15.00 -14.19 -12.28 -10.25  -8.82  -7.74  -6.79  -6.10  -5.65  -5.54  -5.75  -6.11  -6.39  -6.54  -6.60  -6.23  -5.44  -4.89  -5.33  -5.86  -6.13  -6.21  -5.36  -3.95  -2.87  -1.85  -1.10  -0.42   0.82   1.65   2.25   2.85   3.39   3.85   4.32   4.81   5.31   5.82   6.32   6.87   7.51   8.22   9.00   9.83  10.70  11.57  12.41  13.20  13.95 
 -8.20  -8.11  -8.02  -8.07  -8.15  -8.21  -8.31  -8.46  -8.65  -8.79  -8.85  -8.84  -9.19 -10.98 -13.77 -16.01 -16.18 -15.93 -16.03 -15.59 -14.00 -13.14 -14.19 -14.95 -13.83 -11.96 -10.04  -8.69  -7.62  -6.71  -6.05  -5.68  -5.62  -5.82  -6.16  -6.42  -6.57  -6.60  -6.23  -5.42  -4.85  -5.32  -5.86  -6.18  -6.17  -5.17  -3.82  -2.79  -1.89  -1.86  -1.36   0.62   1.70   2.30   2.90   3.43   3.89   4.35   4.84   5.34   5.84   6.36   6.93   7.59   8.34   9.15  10.03  10.95  11.86  12.74  13.56  14.34 
 -8.27  -8.24  -8.09  -7.99  -8.05  -8.16  -8.29  -8.43  -8.65  -8.85  -8.87  -8.83  -9.21 -11.12 -13.86 -15.88 -16.03 -15.84 -15.94 -15.46 -13.86 -13.15 -14.26 -14.69 -13.39 -11.69  -9.85  -8.56  -7.50  -6.63  -6.02  -5.71  -5.69  -5.90  -6.22  -6.46  -6.62  -6.60  -6.19  -5.38  -4.84  -5.34  -5.88  -6.22  -6.10  -4.94  -3.68  -2.67  -2.03  -2.67  -2.15   0.41   1.72   2.34   2.94   3.48   3.94   4.40   4.88   5.37   5.88   6.40   6.98   7.67   8.46   9.31  10.24  11.20  12.16  13.08  13.93  14.73 
 -8.27  -8.32  -8.25  -8.06  -8.04  -8.12  -8.26  -8.43  -8.64  -8.84  -8.86  -8.79  -9.24 -11.32 -14.07 -15.88 -15.98 -15.81 -15.87 -15.32 -13.75 -13.17 -14.21 -14.29 -12.95 -11.45  -9.69  -8.43  -7.42  -6.57  -6.00  -5.73  -5.73  -5.97  -6.30  -6.51  -6.66  -6.64  -6.15  -5.30  -4.89  -5.43  -5.91  -6.23  -5.99  -4.73  -3.52  -2.49  -2.01  -2.94  -2.64  -0.33   1.53   2.36   2.98   3.52   3.99   4.45   4.93   5.42   5.93   6.45   7.05   7.76   8.58   9.47  10.43  11.44  12.44  13.40  14.29  15.11 
 -8.26  -8.30  -8.32  -8.19  -8.11  -8.12  -8.23  -8.41  -8.57  -8.73  -8.82  -8.74  -9.34 -11.70 -14.48 -15.97 -15.94 -15.81 -15.83 -15.11 -13.64 -13.37 -14.28 -13.98 -12.61 -11.14  -9.51  -8.32  -7.34  -6.53  -6.00  -5.74  -5.75  -6.03  -6.35  -6.54  -6.69  -6.69  -6.10  -5.22  -5.03  -5.59  -5.99  -6.24  -5.88  -4.58  -3.37  -2.35  -2.06  -2.92  -2.90  -1.55   1.14   2.37   3.01   3.57   4.05   4.52   4.99   5.49   5.99   6.51   7.13   7.86   8.69   9.62  10.62  11.67  12.71  13.71  14.63  15.46 
 -8.25  -8.27  -8.32  -8.34  -8.27  -8.15  -8.18  -8.33  -8.45  -8.60  -8.79  -8.73  -9.60 -12.30 -15.06 -16.08 -15.85 -15.79 -15.79 -14.86 -13.61 -13.87 -14.48 -13.74 -12.25 -10.67  -9.32  -8.23  -7.26  -6.48  -5.99  -5.78  -5.81  -6.07  -6.36  -6.53  -6.68  -6.65  -6.02  -5.23  -5.23  -5.74  -6.10  -6.31  -5.77  -4.42  -3.20  -2.38  -3.00  -3.66  -3.03  -1.32   1.24   2.40   3.05   3.62   4.11   4.59   5.07   5.56   6.06   6.59   7.20   7.95   8.80   9.75  10.79  11.87  12.95  13.98  14.93  15.78 
 -8.24  -8.32  -8.43  -8.58  -8.54  -8.23  -8.12  -8.23  -8.36  -8.58  -8.80  -8.81 -10.01 -12.76 -15.27 -16.06 -15.74 -15.76 -15.75 -14.75 -13.85 -14.18 -14.08 -12.97 -11.52 -10.17  -9.18  -8.16  -7.21  -6.43  -5.98  -5.82  -5.88  -6.11  -6.36  -6.55  -6.69  -6.60  -5.95  -5.23  -5.27  -5.80  -6.23  -6.37  -5.65  -4.25  -3.01  -2.19  -2.88  -3.83  -3.47  -0.27   1.72   2.44   3.10   3.68   4.18   4.66   5.15   5.64   6.14   6.66   7.28   8.03   8.90   9.87  10.92  12.03  13.13  14.19  15.15  16.01 
 -8.22  -8.41  -8.59  -8.74  -8.66  -8.34  -8.15  -8.13  -8.22  -8.54  -8.80  -8.97 -10.40 -12.74 -14.80 -15.66 -15.61 -15.75 -15.73 -14.97 -14.28 -13.86 -12.89 -11.68 -10.72  -9.92  -9.09  -8.10  -7.18  -6.40  -5.97  -5.85  -5.93  -6.16  -6.39  -6.59  -6.76  -6.65  -5.92  -5.24  -5.36  -5.86  -6.29  -6.37  -5.51  -4.14  -2.92  -1.78  -1.66  -3.13  -3.45  -0.17   1.80   2.49   3.16   3.74   4.24   4.73   5.23   5.72   6.21   6.73   7.35   8.11   8.98   9.95  11.02  12.13  13.25  14.32  15.29  16.16 
 -8.22  -8.39  -8.57  -8.68  -8.53  -8.29  -8.15  -8.07  -8.10  -8.40  -8.61  -8.97 -10.80 -13.10 -14.72 -15.41 -15.54 -15.77 -15.72 -15.03 -14.23 -13.34 -12.02 -10.97 -10.38  -9.80  -9.03  -8.05  -7.13  -6.39  -5.97  -5.89  -6.00  -6.22  -6.40  -6.59  -6.80  -6.71  -5.95  -5.36  -5.52  -5.93  -6.32  -6.32  -5.37  -4.04  -2.88  -1.63  -1.33  -2.87  -3.25  -0.04   1.87   2.56   3.22   3.79   4.30   4.79   5.29   5.78   6.28   6.79   7.41   8.17   9.04  10.01  11.08  12.19  13.30  14.37  15.33  16.20 
 -8.22  -8.39  -8.54  -8.56  -8.34  -8.11  -8.05  -8.02  -8.04  -8.22  -8.57  -9.54 -11.67 -13.79 -14.96 -15.50 -15.61 -15.82 -15.68 -14.86 -13.85 -12.81 -11.68 -10.96 -10.39  -9.69  -8.92  -7.98  -7.07  -6.36  -5.98  -5.93  -6.09  -6.30  -6.46  -6.61  -6.82  -6.73  -5.98  -5.45  -5.63  -5.99  -6.34  -6.23  -5.22  -3.91  -2.78  -1.55  -1.01  -2.13  -2.89   0.07   1.97   2.65   3.29   3.85   4.35   4.84   5.34   5.83   6.32   6.84   7.46   8.22   9.08  10.04  11.09  12.19  13.29  14.34  15.29  16.16 
 -8.14  -8.31  -8.47  -8.40  -8.18  -8.03  -7.97  -7.94  -7.94  -8.14  -8.89 -10.34 -12.30 -14.24 -15.32 -15.82 -15.85 -15.89 -15.63 -14.66 -13.60 -12.64 -11.85 -11.27 -10.53  -9.58  -8.73  -7.85  -6.98  -6.33  -6.00  -5.99  -6.17  -6.37  -6.53  -6.66  -6.86  -6.73  -5.96  -5.50  -5.70  -6.02  -6.32  -6.14  -5.07  -3.76  -2.62  -1.43  -0.53  -0.61  -1.77   0.35   2.09   2.75   3.37   3.91   4.40   4.89   5.38   5.87   6.36   6.87   7.50   8.25   9.10  10.05  11.08  12.15  13.22  14.24  15.18  16.03 
 -8.05  -8.16  -8.35  -8.31  -8.18  -8.11  -8.01  -7.92  -7.92  -8.31  -9.46 -10.94 -12.51 -14.37 -15.62 -16.13 -16.05 -15.94 -15.60 -14.67 -13.72 -12.98 -12.45 -11.71 -10.72  -9.56  -8.59  -7.71  -6.93  -6.34  -6.05  -6.07  -6.25  -6.42  -6.57  -6.73  -6.91  -6.67  -5.87  -5.52  -5.74  -6.04  -6.32  -6.08  -4.94  -3.63  -2.46  -1.29  -0.16   0.68  -0.04   1.01   2.23   2.86   3.46   3.98   4.45   4.93   5.42   5.90   6.39   6.90   7.52   8.27   9.10  10.03  11.03  12.07  13.10  14.10  15.01  15.84 
 -8.03  -8.09  -8.29  -8.35  -8.33  -8.30  -8.22  -8.17  -8.21  -8.72  -9.99 -11.36 -12.99 -14.85 -16.03 -16.33 -16.13 -16.04 -15.75 -15.02 -14.24 -13.73 -13.31 -12.21 -10.90  -9.66  -8.55  -7.63  -6.94  -6.39  -6.13  -6.17  -6.33  -6.45  -6.58  -6.77  -6.91  -6.56  -5.72  -5.49  -5.78  -6.08  -6.37  -6.05  -4.84  -3.56  -2.34  -1.16  -0.05   0.83   1.28   1.82   2.39   2.99   3.55   4.04   4.51   4.98   5.45   5.93   6.41   6.92   7.55   8.28   9.10  10.00  10.97  11.97  12.96  13.92  14.80  15.62 
 -8.12  -8.19  -8.35  -8.50  -8.60  -8.64  -8.71  -8.83  -8.94  -9.28 -10.28 -11.69 -13.99 -16.02 -16.75 -16.56 -16.24 -16.32 -16.26 -15.73 -14.94 -14.55 -14.13 -12.63 -11.00  -9.75  -8.57  -7.64  -7.00  -6.46  -6.22  -6.27  -6.40  -6.49  -6.61  -6.79  -6.87  -6.41  -5.55  -5.41  -5.80  -6.15  -6.43  -6.02  -4.76  -3.48  -2.22  -1.07   0.04   0.98   1.46   2.00   2.55   3.11   3.64   4.11   4.57   5.03   5.49   5.96   6.44   6.95   7.57   8.29   9.09   9.96  10.89  11.86  12.81  13.72  14.58  15.37 
 -8.20  -8.33  -8.49  -8.73  -9.07  -9.30  -9.54  -9.81  -9.93 -10.03 -10.57 -11.62 -13.96 -16.65 -17.40 -16.91 -16.66 -16.82 -16.94 -16.40 -15.22 -14.76 -14.44 -12.79 -11.02  -9.81  -8.68  -7.71  -7.09  -6.54  -6.31  -6.32  -6.42  -6.53  -6.66  -6.84  -6.91  -6.30  -5.42  -5.41  -5.85  -6.27  -6.48  -5.94  -4.67  -3.39  -2.10  -0.93   0.17   1.12   1.62   2.16   2.69   3.22   3.72   4.19   4.64   5.09   5.55   6.01   6.48   6.98   7.59   8.31   9.08   9.92  10.82  11.74  12.65  13.52  14.35  15.12 
 -8.15  -8.30  -8.58  -9.16  -9.77 -10.13 -10.48 -10.82 -10.88 -10.93 -11.29 -11.68 -13.02 -15.79 -17.13 -16.84 -16.67 -16.74 -16.59 -15.66 -14.40 -14.28 -14.30 -12.79 -11.18  -9.94  -8.79  -7.89  -7.16  -6.60  -6.36  -6.31  -6.41  -6.56  -6.70  -6.94  -6.92  -6.18  -5.35  -5.44  -5.92  -6.32  -6.47  -5.76  -4.50  -3.28  -1.96  -0.76   0.35   1.24   1.75   2.28   2.79   3.30   3.80   4.26   4.71   5.16   5.61   6.06   6.52   7.01   7.62   8.32   9.07   9.89  10.75  11.63  12.50  13.33  14.13  14.89 
 -8.03  -8.25  -8.87  -9.79 -10.43 -10.71 -11.11 -11.61 -11.76 -11.75 -11.82 -11.61 -12.60 -15.15 -16.72 -16.58 -16.35 -16.36 -15.75 -14.43 -13.62 -13.99 -14.18 -12.71 -11.21  -9.92  -8.74  -7.98  -7.22  -6.66  -6.40  -6.32  -6.40  -6.55  -6.73  -6.97  -6.83  -6.05  -5.31  -5.50  -5.97  -6.30  -6.39  -5.58  -4.31  -3.14  -1.82  -0.44   0.73   1.32   1.83   2.35   2.84   3.35   3.84   4.31   4.77   5.23   5.67   6.12   6.56   7.05   7.65   8.35   9.07   9.86  10.69  11.53  12.36  13.16  13.93  14.66 
 -8.33  -9.00  -9.86 -10.56 -11.09 -11.36 -11.66 -12.15 -12.27 -12.16 -12.11 -11.76 -12.44 -15.03 -16.72 -16.50 -16.23 -16.19 -15.34 -13.91 -13.32 -13.85 -14.13 -12.64 -11.11  -9.91  -8.82  -8.02  -7.27  -6.72  -6.43  -6.34  -6.42  -6.58  -6.78  -6.95  -6.73  -5.94  -5.33  -5.58  -6.01  -6.33  -6.32  -5.41  -4.13  -2.94  -1.63  -0.22   0.90   1.36   1.86   2.36   2.84   3.34   3.84   4.33   4.81   5.28   5.74   6.17   6.61   7.10   7.69   8.37   9.08   9.84  10.63  11.44  12.23  13.00  13.74  14.45 
 -9.53 -10.57 -11.58 -11.88 -11.89 -11.99 -12.17 -12.04 -11.53 -11.89 -12.44 -12.20 -12.81 -15.34 -16.84 -16.46 -16.16 -16.03 -15.12 -13.76 -13.23 -13.77 -14.10 -12.59 -11.01  -9.92  -8.92  -7.99  -7.26  -6.74  -6.45  -6.37  -6.47  -6.63  -6.83  -6.96  -6.68  -5.86  -5.35  -5.64  -6.07  -6.41  -6.25  -5.23  -3.94  -2.72  -1.40  -0.08   0.90   1.35   1.83   2.31   2.77   3.28   3.81   4.32   4.83   5.33   5.79   6.23   6.67   7.15   7.73   8.40   9.09   9.83  10.59  11.36  12.12  12.85  13.57  14.26 
-11.39 -12.29 -13.08 -13.06 -12.51 -12.12 -11.67 -11.02 -10.27 -11.10 -12.08 -12.21 -13.31 -15.78 -16.87 -16.39 -16.11 -15.89 -14.94 -13.70 -13.19 -13.67 -14.02 -12.53 -10.91  -9.83  -8.85  -7.88  -7.19  -6.72  -6.46  -6.40  -6.52  -6.68  -6.86  -7.00  -6.65  -5.78  -5.38  -5.71  -6.15  -6.48  -6.18  -5.05  -3.79  -2.52  -1.18   0.03   0.86   1.28   1.73   2.19   2.65   3.17   3.74   4.29   4.84   5.36   5.84   6.28   6.73   7.20   7.78   8.44   9.11   9.82  10.55  11.29  12.01  12.72  13.42  14.09 
-12.87 -13.16 -13.56 -13.54 -12.73 -11.95 -10.70  -9.85  -9.61 -10.34 -11.24 -11.98 -13.75 -16.12 -16.76 -16.28 -16.08 -15.79 -14.79 -13.62 -13.17 -13.64 -13.94 -12.42 -10.73  -9.58  -8.58  -7.68  -7.05  -6.65  -6.45  -6.43  -6.55  -6.71  -6.90  -7.01  -6.57  -5.67  -5.45  -5.83  -6.24  -6.51  -6.09  -4.92  -3.67  -2.36  -0.98   0.15   0.78   1.16   1.58   2.02   2.49   3.04   3.65   4.25   4.84   5.39   5.89   6.34   6.79   7.27   7.84   8.48   9.14   9.82  10.52  11.23  11.93  12.60  13.28  13.94 
-13.23 -13.06 -13.29 -13.53 -12.75 -12.07 -10.79  -9.68  -9.75 -10.02 -10.95 -12.19 -14.19 -16.33 -16.57 -16.16 -16.03 -15.71 -14.67 -13.51 -13.16 -13.79 -13.95 -12.18 -10.46  -9.30  -8.28  -7.46  -6.87  -6.54  -6.42  -6.45  -6.57  -6.75  -6.94  -6.98  -6.41  -5.59  -5.57  -5.96  -6.33  -6.52  -6.00  -4.82  -3.51  -2.18  -0.77   0.28   0.50   0.82   1.33   1.82   2.31   2.91   3.58   4.23   4.85   5.43   5.94   6.40   6.86   7.34   7.91   8.53   9.17   9.83  10.50  11.18  11.85  12.50  13.16  13.80 
-12.90 -13.07 -13.32 -13.59 -12.88 -12.49 -12.18 -10.83  -9.93 -10.16 -11.50 -12.62 -14.49 -16.49 -16.43 -16.05 -15.93 -15.62 -14.59 -13.49 -13.27 -13.95 -13.76 -11.76 -10.15  -9.07  -8.05  -7.24  -6.69  -6.44  -6.42  -6.48  -6.63  -6.81  -6.99  -6.97  -6.28  -5.58  -5.70  -6.05  -6.41  -6.53  -5.90  -4.71  -3.37  -2.02  -0.86  -0.95  -1.38  -1.34   0.45   1.63   2.15   2.82   3.55   4.24   4.89   5.48   6.00   6.47   6.93   7.41   7.97   8.58   9.20   9.84  10.49  11.14  11.79  12.42  13.06  13.68 
-12.59 -13.42 -13.21 -12.86 -12.39 -12.26 -12.49 -12.04 -11.21 -11.27 -11.99 -12.81 -14.73 -16.63 -16.52 -15.99 -15.87 -15.55 -14.41 -13.44 -13.34 -13.74 -13.05 -11.24  -9.87  -8.80  -7.80  -7.01  -6.52  -6.38  -6.43  -6.54  -6.71  -6.89  -7.04  -6.94  -6.17  -5.54  -5.79  -6.12  -6.44  -6.49  -5.71  -4.57  -3.28  -1.86  -0.96  -2.44  -3.00  -2.07  -0.55   1.21   2.06   2.80   3.58   4.30   4.96   5.55   6.06   6.54   7.00   7.48   8.04   8.63   9.23   9.85  10.48  11.11  11.73  12.34  12.97  13.58 
-11.75 -12.15 -11.61 -11.05 -11.06 -11.75 -12.34 -12.39 -12.31 -12.36 -12.45 -13.01 -14.95 -16.76 -16.67 -16.07 -15.92 -15.53 -14.20 -13.31 -13.33 -13.41 -12.34 -10.82  -9.64  -8.56  -7.56  -6.79  -6.37  -6.32  -6.44  -6.60  -6.78  -6.95  -7.09  -6.90  -6.08  -5.47  -5.74  -6.14  -6.50  -6.46  -5.55  -4.41  -3.15  -1.70  -0.91  -2.80  -3.43  -2.26  -1.15   0.92   2.05   2.85   3.68   4.41   5.06   5.63   6.14   6.60   7.06   7.55   8.10   8.68   9.26   9.86  10.47  11.08  11.69  12.28  12.89  13.49 
-10.46 -10.35  -9.72  -9.39  -9.98 -11.16 -12.14 -12.42 -12.37 -12.43 -12.45 -12.93 -14.86 -16.70 -16.67 -16.14 -16.01 -15.51 -14.02 -13.13 -13.22 -12.99 -11.78 -10.51  -9.40  -8.33  -7.36  -6.62  -6.27  -6.29  -6.46  -6.64  -6.82  -6.98  -7.10  -6.86  -6.03  -5.39  -5.67  -6.17  -6.56  -6.44  -5.42  -4.25  -2.99  -1.52  -0.79  -2.84  -3.58  -2.45  -1.37   0.87   2.11   2.97   3.82   4.55   5.18   5.73   6.21   6.67   7.13   7.62   8.16   8.72   9.29   9.87  10.47  11.06  11.65  12.23  12.83  13.41 
 -9.01  -8.84  -8.51  -8.48  -9.25 -10.53 -11.75 -12.33 -12.33 -12.36 -12.38 -12.79 -14.79 -16.61 -16.58 -16.17 -16.05 -15.46 -13.86 -13.01 -13.07 -12.55 -11.35 -10.32  -9.19  -8.11  -7.19  -6.50  -6.20  -6.27  -6.47  -6.66  -6.83  -6.99  -7.11  -6.82  -5.94  -5.32  -5.65  -6.21  -6.58  -6.36  -5.26  -4.09  -2.83  -1.31  -0.61  -2.73  -3.56  -2.53  -1.40   0.95   2.24   3.14   4.00   4.70   5.30   5.82   6.29   6.73   7.18   7.67   8.21   8.76   9.32   9.89  10.47  11.04  11.62  12.18  12.77  13.35 
 -8.11  -8.10  -8.11  -8.23  -8.80  -9.89 -11.15 -12.08 -12.33 -12.34 -12.27 -12.74 -14.94 -16.58 -16.50 -16.18 -16.05 -15.33 -13.79 -13.10 -12.97 -12.16 -11.03 -10.13  -8.99  -7.92  -7.05  -6.41  -6.16  -6.25  -6.46  -6.66  -6.85  -7.01  -7.13  -6.78  -5.83  -5.29  -5.69  -6.25  -6.57  -6.24  -5.09  -3.93  -2.65  -1.52  -1.14  -2.74  -3.33  -2.42  -1.33   1.08   2.43   3.34   4.18   4.86   5.42   5.91   6.35   6.79   7.23   7.72   8.25   8.80   9.34   9.90  10.47  11.03  11.59  12.15  12.72  13.29 
 -7.96  -8.05  -8.16  -8.24  -8.49  -9.27 -10.46 -11.64 -12.27 -12.34 -12.17 -12.94 -15.29 -16.59 -16.44 -16.21 -16.03 -15.14 -13.76 -13.31 -12.88 -11.84 -10.82  -9.86  -8.74  -7.73  -6.92  -6.34  -6.15  -6.25  -6.45  -6.66  -6.88  -7.04  -7.16  -6.73  -5.70  -5.30  -5.74  -6.28  -6.58  -6.13  -4.94  -3.79  -2.42  -2.44  -2.81  -3.13  -3.00  -2.20  -1.17   1.28   2.65   3.55   4.36   5.00   5.53   5.98   6.41   6.83   7.27   7.76   8.28   8.83   9.37   9.92  10.47  11.03  11.58  12.12  12.69  13.24 
 -8.17  -8.25  -8.28  -8.23  -8.27  -8.76  -9.84 -11.10 -12.06 -12.35 -12.20 -13.38 -15.62 -16.49 -16.37 -16.23 -16.02 -14.94 -13.68 -13.38 -12.70 -11.56 -10.66  -9.51  -8.40  -7.52  -6.79  -6.28  -6.13  -6.25  -6.46  -6.67  -6.91  -7.09  -7.16  -6.65  -5.52  -5.30  -5.84  -6.33  -6.64  -6.05  -4.78  -3.66  -2.24  -3.20  -4.16  -3.38  -2.68  -1.93  -0.95   1.53   2.90   3.76   4.52   5.12   5.61   6.04   6.45   6.86   7.30   7.78   8.31   8.85   9.39   9.93  10.48  11.02  11.56  12.10  12.66  13.21 
 -8.25  -8.32  -8.32  -8.22  -8.19  -8.45  -9.32 -10.51 -11.72 -12.35 -12.36 -13.71 -15.60 -16.21 -16.23 -16.20 -15.97 -14.76 -13.59 -13.26 -12.45 -11.31 -10.36  -9.11  -8.05  -7.31  -6.67  -6.20  -6.08  -6.25  -6.47  -6.67  -6.89  -7.08  -7.16  -6.54  -5.33  -5.36  -6.00  -6.48  -6.68  -5.91  -4.61  -3.53  -2.12  -2.93  -3.75  -3.09  -2.60  -1.91  -0.92   1.76   3.16   3.96   4.66   5.21   5.67   6.07   6.47   6.88   7.32   7.81   8.34   8.88   9.41   9.95  10.49  11.03  11.56  12.08  12.64  13.18 
 -8.23  -8.27  -8.25  -8.20  -8.16  -8.25  -8.84 -10.03 -11.50 -12.37 -12.48 -13.47 -15.03 -15.85 -16.11 -16.14 -15.84 -14.64 -13.57 -13.09 -12.08 -11.01  -9.84  -8.64  -7.81  -7.16  -6.56  -6.12  -6.06  -6.26  -6.49  -6.69  -6.88  -7.05  -7.08  -6.36  -5.26  -5.44  -6.08  -6.55  -6.65  -5.75  -4.43  -3.31  -1.91  -2.94  -3.88  -2.64  -0.50   0.91   1.57   2.58   3.42   4.15   4.78   5.29   5.71   6.10   6.49   6.90   7.34   7.83   8.37   8.91   9.44   9.97  10.51  11.04  11.56  12.08  12.62  13.16 
 -8.18  -8.21  -8.20  -8.18  -8.15  -8.13  -8.51  -9.67 -11.19 -12.11 -12.36 -13.39 -15.00 -15.83 -16.00 -15.97 -15.61 -14.53 -13.56 -12.77 -11.63 -10.54  -9.34  -8.38  -7.71  -7.06  -6.44  -6.05  -6.08  -6.31  -6.51  -6.72  -6.90  -7.06  -6.97  -6.15  -5.19  -5.45  -6.12  -6.59  -6.57  -5.53  -4.22  -3.10  -1.69  -3.04  -4.24  -2.12   0.89   1.74   2.34   2.98   3.65   4.32   4.89   5.35   5.76   6.14   6.52   6.93   7.37   7.87   8.41   8.94   9.47  10.00  10.53  11.05  11.57  12.08  12.62  13.15 
 -8.12  -8.16  -8.15  -8.14  -8.21  -8.20  -8.28  -9.12 -10.49 -11.43 -12.10 -13.55 -15.20 -15.88 -15.92 -15.87 -15.59 -14.71 -13.63 -12.44 -11.22 -10.05  -9.00  -8.26  -7.65  -6.97  -6.36  -6.02  -6.09  -6.33  -6.52  -6.74  -6.92  -7.05  -6.88  -5.96  -5.15  -5.53  -6.21  -6.64  -6.46  -5.31  -4.04  -2.92  -1.48  -3.14  -4.62  -2.51   0.89   2.05   2.65   3.25   3.86   4.46   4.98   5.42   5.80   6.17   6.56   6.97   7.41   7.91   8.45   8.98   9.51  10.03  10.55  11.07  11.58  12.08  12.62  13.14 
 -8.09  -8.11  -8.13  -8.19  -8.29  -8.26  -8.13  -8.58  -9.69 -10.79 -11.99 -13.75 -15.30 -15.87 -15.90 -15.90 -15.77 -14.96 -13.48 -11.92 -10.69  -9.69  -8.88  -8.20  -7.58  -6.91  -6.30  -6.00  -6.10  -6.33  -6.52  -6.75  -6.93  -7.04  -6.79  -5.83  -5.21  -5.66  -6.28  -6.65  -6.33  -5.12  -3.87  -2.72  -1.31  -3.30  -4.74  -2.06   1.20   2.32   2.91   3.48   4.04   4.58   5.07   5.48   5.86   6.22   6.61   7.02   7.47   7.97   8.51   9.03   9.55  10.07  10.58  11.09  11.60  12.09  12.62  13.14 
 -8.06  -8.09  -8.18  -8.29  -8.32  -8.22  -8.05  -8.31  -9.21 -10.53 -12.18 -14.19 -15.62 -15.93 -15.93 -15.97 -15.88 -14.83 -12.88 -11.26 -10.25  -9.51  -8.84  -8.15  -7.50  -6.85  -6.26  -5.98  -6.09  -6.31  -6.53  -6.73  -6.91  -7.05  -6.72  -5.78  -5.38  -5.82  -6.34  -6.63  -6.20  -4.95  -3.71  -2.52  -1.16  -2.77  -3.45  -0.18   1.96   2.56   3.12   3.65   4.17   4.68   5.15   5.55   5.92   6.28   6.67   7.09   7.53   8.04   8.57   9.09   9.60  10.11  10.62  11.12  11.62  12.11  12.64  13.15 
 -8.07  -8.12  -8.25  -8.31  -8.25  -8.16  -8.13  -8.40  -9.26 -10.68 -12.56 -14.83 -16.18 -16.12 -16.03 -16.07 -15.73 -14.26 -12.24 -10.90 -10.14  -9.48  -8.77  -8.06  -7.41  -6.77  -6.22  -5.97  -6.09  -6.31  -6.53  -6.72  -6.92  -7.08  -6.69  -5.79  -5.56  -5.95  -6.42  -6.64  -6.06  -4.79  -3.58  -2.36  -0.97  -1.01  -0.58   1.60   2.17   2.75   3.29   3.79   4.28   4.77   5.22   5.62   5.99   6.35   6.74   7.16   7.61   8.11   8.64   9.15   9.65  10.16  10.66  11.16  11.65  12.14  12.66  13.16 
 -8.11  -8.18  -8.23  -8.17  -8.11  -8.17  -8.36  -8.67  -9.56 -10.99 -13.11 -15.56 -16.67 -16.40 -16.27 -16.27 -15.48 -13.81 -12.26 -11.16 -10.29  -9.44  -8.64  -7.94  -7.31  -6.68  -6.16  -5.98  -6.11  -6.35  -6.58  -6.75  -6.94  -7.09  -6.66  -5.77  -5.63  -6.01  -6.50  -6.66  -5.93  -4.63  -3.47  -2.23  -0.74   0.78   1.24   1.78   2.35   2.90   3.42   3.90   4.38   4.85   5.29   5.69   6.06   6.43   6.82   7.24   7.69   8.19   8.71   9.21   9.71  10.21  10.70  11.19  11.68  12.17  12.68  13.18 
 -8.14  -8.10  -8.03  -7.98  -8.04  -8.27  -8.58  -8.75  -9.50 -11.02 -14.11 -16.54 -16.94 -16.69 -16.62 -16.50 -15.54 -14.19 -13.03 -11.60 -10.29  -9.32  -8.48  -7.80  -7.22  -6.63  -6.13  -5.99  -6.14  -6.41  -6.64  -6.83  -6.99  -7.07  -6.55  -5.72  -5.66  -6.05  -6.55  -6.65  -5.77  -4.46  -3.35  -2.10  -0.55   0.91   1.40   1.94   2.50   3.03   3.52   3.99   4.46   4.93   5.37   5.76   6.13   6.50   6.89   7.31   7.75   8.25   8.77   9.27   9.76  10.25  10.74  11.23  11.72  12.20  12.71  13.21 
 -8.07  -7.82  -7.78  -7.91  -8.15  -8.43  -8.62  -8.59  -9.05 -10.55 -14.33 -16.92 -16.86 -16.60 -16.73 -16.72 -15.97 -14.81 -13.31 -11.51 -10.08  -9.08  -8.30  -7.70  -7.15  -6.56  -6.11  -6.00  -6.15  -6.40  -6.64  -6.88  -7.04  -7.02  -6.41  -5.70  -5.75  -6.17  -6.62  -6.63  -5.67  -4.34  -3.26  -1.98  -0.39   1.02   1.52   2.07   2.61   3.13   3.61   4.07   4.54   5.01   5.44   5.82   6.19   6.55   6.94   7.36   7.80   8.30   8.82   9.32   9.81  10.30  10.79  11.28  11.76  12.24  12.75  13.24 
 -7.89  -7.67  -7.78  -8.05  -8.34  -8.58  -8.68  -8.52  -9.07 -10.91 -14.27 -16.74 -16.57 -16.16 -16.40 -16.47 -15.89 -14.65 -12.82 -11.13  -9.93  -8.93  -8.24  -7.71  -7.13  -6.50  -6.08  -6.01  -6.17  -6.43  -6.68  -6.92  -7.10  -7.03  -6.33  -5.70  -5.84  -6.25  -6.66  -6.59  -5.57  -4.25  -3.14  -1.84  -0.23   1.11   1.63   2.18   2.71   3.21   3.69   4.14   4.61   5.08   5.50   5.88   6.24   6.59   6.97   7.39   7.83   8.34   8.87   9.36   9.85  10.34  10.83  11.32  11.80  12.28  12.79  13.28 
 -7.84  -7.76  -7.91  -8.20  -8.47  -8.65  -8.71  -8.79  -9.59 -11.39 -14.69 -16.86 -16.40 -15.97 -16.10 -16.00 -15.51 -14.35 -12.48 -10.94  -9.89  -8.98  -8.29  -7.69  -7.05  -6.44  -6.06  -6.00  -6.19  -6.47  -6.72  -6.94  -7.13  -7.05  -6.30  -5.71  -5.92  -6.32  -6.68  -6.48  -5.40  -4.10  -2.96  -1.64  -0.06   1.19   1.72   2.27   2.80   3.29   3.76   4.21   4.69   5.15   5.56   5.93   6.28   6.62   7.00   7.41   7.85   8.37   8.90   9.40   9.89  10.39  10.88  11.37  11.85  12.33  12.83  13.32 
 -8.02  -7.98  -8.05  -8.25  -8.43  -8.54  -8.66  -9.13 -10.20 -11.71 -14.63 -16.72 -16.40 -15.97 -15.98 -15.82 -15.30 -14.14 -12.36 -10.88  -9.87  -9.03  -8.30  -7.60  -6.94  -6.39  -6.04  -6.00  -6.21  -6.48  -6.73  -6.93  -7.13  -7.07  -6.28  -5.74  -6.01  -6.41  -6.70  -6.36  -5.22  -3.92  -2.75  -1.39   0.36   1.26   1.80   2.35   2.87   3.36   3.83   4.28   4.75   5.21   5.62   5.97   6.31   6.65   7.01   7.42   7.87   8.39   8.93   9.43   9.93  10.43  10.93  11.42  11.90  12.38  12.88  13.37 
 -8.15  -8.07  -8.06  -8.14  -8.24  -8.33  -8.59  -9.48 -10.89 -12.32 -14.81 -16.73 -16.47 -16.00 -15.96 -15.86 -15.29 -13.99 -12.34 -10.88  -9.87  -9.03  -8.24  -7.50  -6.87  -6.34  -6.01  -6.01  -6.22  -6.49  -6.73  -6.94  -7.15  -7.08  -6.25  -5.76  -6.13  -6.51  -6.71  -6.25  -5.06  -3.74  -2.54  -1.17   0.75   1.32   1.87   2.42   2.95   3.43   3.89   4.35   4.82   5.28   5.67   6.02   6.34   6.67   7.03   7.43   7.89   8.41   8.96   9.47   9.98  10.48  10.98  11.47  11.96  12.44  12.94  13.42 
 -8.06  -7.97  -7.92  -7.95  -8.03  -8.15  -8.61  -9.80 -11.40 -13.06 -15.50 -16.95 -16.45 -16.03 -16.00 -15.94 -15.32 -13.89 -12.32 -10.93  -9.88  -8.98  -8.16  -7.44  -6.83  -6.30  -5.99  -6.02  -6.25  -6.51  -6.76  -6.98  -7.17  -7.05  -6.20  -5.80  -6.25  -6.59  -6.70  -6.14  -4.91  -3.61  -2.39  -1.01   0.81   1.39   1.94   2.49   3.01   3.50   3.96   4.41   4.89   5.34   5.72   6.06   6.38   6.70   7.05   7.45   7.91   8.44   8.99   9.51  10.03  10.54  11.04  11.53  12.02  12.51  13.01  13.48 
 -7.83  -7.77  -7.74  -7.79  -7.89  -8.07  -8.69  -9.93 -11.36 -13.36 -16.07 -17.02 -16.33 -16.10 -16.09 -15.96 -15.31 -13.88 -12.34 -10.97  -9.86  -8.91  -8.08  -7.37  -6.78  -6.26  -5.96  -6.02  -6.30  -6.55  -6.79  -7.01  -7.17  -6.95  -6.12  -5.86  -6.33  -6.66  -6.70  -6.02  -4.77  -3.51  -2.26  -0.86   0.87   1.44   2.00   2.56   3.08   3.56   4.02   4.47   4.95   5.40   5.78   6.11   6.42   6.73   7.07   7.48   7.94   8.47   9.03   9.56  10.08  10.60  11.11  11.60  12.09  12.58  13.08  13.55 
 -7.63  -7.63  -7.64  -7.71  -7.84  -8.04  -8.69  -9.70 -10.94 -13.20 -16.00 -16.83 -16.31 -16.20 -16.13 -15.94 -15.31 -13.94 -12.37 -10.94  -9.82  -8.86  -8.01  -7.28  -6.69  -6.20  -5.94  -6.05  -6.36  -6.60  -6.83  -7.03  -7.15  -6.84  -6.03  -5.92  -6.36  -6.73  -6.73  -5.88  -4.60  -3.39  -2.15  -0.75   0.92   1.50   2.06   2.61   3.13   3.62   4.08   4.53   5.01   5.46   5.84   6.16   6.46   6.77   7.11   7.51   7.98   8.52   9.09   9.62  10.15  10.67  11.19  11.69  12.17  12.67  13.16  13.63 
 -7.39  -7.46  -7.54  -7.66  -7.81  -8.03  -8.64  -9.63 -10.78 -13.12 -16.07 -16.88 -16.36 -16.21 -16.09 -15.89 -15.30 -13.96 -12.27 -10.81  -9.78  -8.82  -7.96  -7.23  -6.61  -6.16  -5.96  -6.11  -6.37  -6.61  -6.85  -7.06  -7.16  -6.74  -5.94  -5.93  -6.40  -6.78  -6.66  -5.68  -4.40  -3.20  -1.91  -0.58   0.96   1.53   2.09   2.64   3.16   3.65   4.12   4.58   5.06   5.52   5.89   6.21   6.50   6.81   7.16   7.56   8.04   8.59   9.16   9.70  10.23  10.76  11.27  11.78  12.26  12.76  13.25  13.72 
 -7.20  -7.31  -7.45  -7.59  -7.76  -8.05  -8.65  -9.59 -10.63 -12.93 -16.04 -16.85 -16.33 -16.18 -16.04 -15.79 -15.23 -13.90 -12.08 -10.65  -9.73  -8.78  -7.90  -7.18  -6.55  -6.12  -5.97  -6.15  -6.40  -6.65  -6.88  -7.09  -7.17  -6.64  -5.86  -6.00  -6.44  -6.76  -6.56  -5.51  -4.22  -2.98  -1.68  -0.42   0.98   1.52   2.07   2.63   3.16   3.67   4.15   4.62   5.10   5.56   5.92   6.25   6.55   6.86   7.21   7.63   8.11   8.67   9.25   9.79  10.33  10.86  11.38  11.88  12.37  12.86  13.35  13.81 
 -7.13  -7.24  -7.37  -7.52  -7.72  -8.09  -8.71  -9.62 -10.59 -12.55 -15.63 -16.72 -16.32 -16.18 -16.00 -15.68 -15.08 -13.66 -11.88 -10.53  -9.65  -8.71  -7.82  -7.09  -6.48  -6.07  -5.98  -6.18  -6.46  -6.73  -6.95  -7.14  -7.19  -6.59  -5.86  -6.09  -6.50  -6.75  -6.47  -5.35  -4.04  -2.78  -1.51  -0.29   0.96   1.47   2.01   2.56   3.11   3.65   4.15   4.64   5.13   5.58   5.95   6.28   6.59   6.92   7.28   7.71   8.20   8.77   9.35   9.90  10.44  10.97  11.49  11.99  12.48  12.97  13.46  13.92 
 -7.05  -7.15  -7.27  -7.44  -7.69  -8.08  -8.82  -9.72 -10.58 -12.41 -15.44 -16.64 -16.33 -16.22 -15.98 -15.57 -14.88 -13.42 -11.77 -10.45  -9.54  -8.61  -7.72  -7.00  -6.41  -6.03  -5.98  -6.23  -6.51  -6.79  -7.00  -7.18  -7.20  -6.60  -5.91  -6.13  -6.56  -6.75  -6.34  -5.16  -3.87  -2.61  -1.35  -0.16   0.90   1.38   1.89   2.45   3.03   3.60   4.14   4.65   5.15   5.60   5.98   6.32   6.64   6.98   7.36   7.80   8.31   8.88   9.47  10.02  10.57  11.10  11.62  12.12  12.61  13.10  13.58  14.03 
 -6.97  -7.04  -7.15  -7.35  -7.63  -8.00  -8.81  -9.69 -10.60 -12.66 -15.56 -16.61 -16.37 -16.28 -15.96 -15.46 -14.73 -13.24 -11.67 -10.38  -9.42  -8.44  -7.59  -6.91  -6.35  -6.00  -5.99  -6.26  -6.56  -6.82  -7.03  -7.21  -7.18  -6.55  -5.89  -6.13  -6.58  -6.76  -6.19  -4.96  -3.71  -2.47  -1.21   0.06   0.82   1.09   1.37   2.31   2.92   3.54   4.12   4.65   5.16   5.62   6.00   6.35   6.70   7.06   7.46   7.91   8.43   9.01   9.60  10.16  10.71  11.24  11.76  12.26  12.74  13.23  13.71  14.15 
 -6.93  -6.96  -7.05  -7.27  -7.53  -7.89  -8.70  -9.52 -10.70 -13.13 -15.81 -16.59 -16.40 -16.32 -15.90 -15.34 -14.61 -13.05 -11.48 -10.28  -9.30  -8.25  -7.45  -6.83  -6.30  -5.98  -6.00  -6.27  -6.59  -6.85  -7.07  -7.23  -7.13  -6.41  -5.84  -6.16  -6.59  -6.76  -6.08  -4.78  -3.59  -2.35  -1.07   0.32   0.66   0.17  -0.25   1.34   2.49   3.49   4.11   4.67   5.18   5.64   6.02   6.39   6.76   7.14   7.56   8.03   8.57   9.16   9.75  10.31  10.86  11.40  11.92  12.42  12.89  13.38  13.85  14.28 
 -6.95  -6.96  -7.04  -7.23  -7.42  -7.86  -8.66  -9.40 -10.88 -13.60 -16.02 -16.58 -16.43 -16.34 -15.84 -15.22 -14.43 -12.77 -11.23 -10.12  -9.17  -8.10  -7.31  -6.77  -6.30  -5.97  -5.99  -6.25  -6.59  -6.89  -7.11  -7.27  -7.10  -6.28  -5.82  -6.21  -6.61  -6.77  -5.98  -4.64  -3.47  -2.21  -0.96   0.01   0.12  -1.69  -2.97  -1.42   1.39   3.49   4.13   4.70   5.22   5.67   6.06   6.44   6.83   7.23   7.67   8.16   8.71   9.31   9.91  10.48  11.03  11.57  12.09  12.58  13.06  13.54  14.00  14.42 
 -7.06  -7.10  -7.14  -7.24  -7.38  -7.91  -8.85  -9.59 -11.12 -13.95 -16.20 -16.63 -16.47 -16.38 -15.87 -15.17 -14.24 -12.55 -11.06  -9.96  -9.03  -8.04  -7.26  -6.75  -6.28  -5.94  -5.97  -6.27  -6.60  -6.86  -7.04  -7.28  -7.09  -6.16  -5.73  -6.22  -6.68  -6.75  -5.84  -4.52  -3.33  -1.92  -1.71  -2.26  -1.58  -2.51  -2.31   0.74   2.81   3.55   4.18   4.75   5.26   5.72   6.11   6.50   6.90   7.33   7.78   8.29   8.86   9.47  10.08  10.66  11.22  11.76  12.27  12.77  13.23  13.71  14.16  14.58 
 -7.23  -7.24  -7.24  -7.30  -7.40  -8.00  -9.14 -10.08 -11.69 -14.31 -16.28 -16.65 -16.53 -16.47 -15.99 -15.27 -14.51 -12.83 -11.01  -9.77  -8.91  -8.04  -7.29  -6.75  -6.27  -5.94  -5.96  -6.28  -6.64  -6.88  -7.04  -7.23  -6.98  -6.02  -5.65  -6.27  -6.75  -6.72  -5.70  -4.38  -3.22  -1.68  -2.71  -4.99  -4.14  -3.44  -1.38   2.10   2.99   3.67   4.28   4.83   5.33   5.78   6.18   6.58   6.99   7.43   7.90   8.42   9.01   9.64  10.27  10.85  11.42  11.96  12.48  12.96  13.43  13.89  14.34  14.74 
 -7.43  -7.31  -7.30  -7.36  -7.49  -8.18  -9.28 -10.59 -12.80 -14.89 -16.30 -16.58 -16.51 -16.49 -16.04 -15.45 -14.86 -13.00 -10.81  -9.56  -8.82  -8.07  -7.36  -6.80  -6.30  -5.95  -5.97  -6.29  -6.66  -6.92  -7.10  -7.20  -6.84  -5.91  -5.71  -6.35  -6.78  -6.66  -5.57  -4.26  -3.09  -1.63  -1.88  -4.27  -4.38  -1.66   1.07   2.51   3.19   3.82   4.40   4.92   5.41   5.85   6.25   6.65   7.07   7.52   8.02   8.56   9.17   9.82  10.46  11.06  11.63  12.18  12.69  13.18  13.63  14.09  14.52  14.91 
 -8.00  -7.84  -7.76  -7.57  -7.57  -8.29  -9.28 -10.50 -12.84 -15.27 -16.51 -16.60 -16.49 -16.41 -16.01 -15.51 -14.72 -12.58 -10.43  -9.36  -8.75  -8.09  -7.43  -6.81  -6.29  -5.98  -6.02  -6.30  -6.64  -6.90  -7.10  -7.18  -6.69  -5.76  -5.74  -6.43  -6.82  -6.57  -5.42  -4.14  -2.94  -1.55  -0.57  -1.75  -2.21   0.60   2.10   2.75   3.39   3.98   4.51   5.01   5.49   5.92   6.32   6.73   7.16   7.62   8.13   8.69   9.33  10.01  10.67  11.28  11.87  12.41  12.93  13.40  13.84  14.29  14.71  15.08 
 -8.67  -8.58  -8.40  -7.88  -7.69  -8.58  -9.82 -10.96 -12.96 -15.63 -16.78 -16.64 -16.46 -16.33 -15.98 -15.46 -14.29 -11.91  -9.99  -9.19  -8.70  -8.12  -7.45  -6.80  -6.27  -6.01  -6.08  -6.34  -6.63  -6.88  -7.07  -7.10  -6.49  -5.64  -5.79  -6.47  -6.81  -6.47  -5.27  -4.01  -2.75  -1.90  -1.41  -1.22   0.16   1.72   2.35   2.99   3.58   4.12   4.62   5.10   5.57   6.00   6.39   6.80   7.23   7.71   8.24   8.83   9.50  10.22  10.89  11.52  12.12  12.67  13.17  13.64  14.07  14.50  14.91  15.26 
 -9.13  -9.17  -9.00  -8.55  -8.77  -9.94 -11.31 -12.60 -14.20 -16.20 -16.92 -16.63 -16.39 -16.26 -15.99 -15.24 -13.54 -11.24  -9.80  -9.24  -8.72  -8.09  -7.43  -6.78  -6.27  -6.02  -6.12  -6.38  -6.65  -6.88  -7.06  -7.00  -6.31  -5.60  -5.88  -6.52  -6.80  -6.35  -5.13  -3.90  -2.57  -2.19  -2.76  -1.91   1.33   1.94   2.58   3.18   3.74   4.24   4.72   5.18   5.64   6.06   6.45   6.86   7.30   7.79   8.35   8.97   9.68  10.43  11.13  11.78  12.38  12.94  13.44  13.90  14.31  14.73  15.11  15.45 
 -9.37  -9.60  -9.56  -9.45 -10.13 -11.48 -12.95 -14.37 -15.70 -16.69 -16.83 -16.48 -16.27 -16.26 -15.93 -14.69 -12.64 -10.94 -10.23  -9.70  -8.84  -8.01  -7.37  -6.77  -6.28  -6.03  -6.13  -6.39  -6.66  -6.91  -7.10  -6.93  -6.19  -5.61  -5.96  -6.58  -6.79  -6.23  -4.99  -3.79  -2.42  -1.94  -2.37  -1.11   1.50   2.13   2.76   3.34   3.86   4.34   4.79   5.25   5.70   6.11   6.50   6.90   7.35   7.86   8.44   9.10   9.86  10.65  11.39  12.06  12.67  13.22  13.72  14.16  14.56  14.96  15.33  15.64 
 -9.49  -9.93 -10.10 -10.15 -10.56 -11.68 -13.27 -14.72 -16.06 -16.61 -16.53 -16.26 -16.17 -16.24 -15.58 -13.88 -12.23 -11.45 -11.30 -10.41  -9.06  -7.97  -7.28  -6.75  -6.30  -6.06  -6.14  -6.38  -6.67  -6.96  -7.14  -6.89  -6.09  -5.59  -6.02  -6.58  -6.73  -6.09  -4.83  -3.62  -2.30  -1.89  -2.25   0.59   1.63   2.28   2.90   3.45   3.95   4.40   4.85   5.30   5.74   6.15   6.53   6.94   7.39   7.92   8.54   9.25  10.06  10.90  11.66  12.36  12.98  13.53  14.01  14.44  14.82  15.20  15.54  15.84 
 -9.54 -10.08 -10.46 -10.45 -10.14 -10.61 -11.74 -13.37 -15.24 -15.91 -16.19 -16.14 -16.08 -15.95 -14.98 -13.60 -12.99 -12.88 -12.22 -10.58  -9.11  -7.96  -7.20  -6.70  -6.29  -6.09  -6.17  -6.42  -6.71  -6.98  -7.13  -6.82  -5.96  -5.52  -6.09  -6.59  -6.63  -5.91  -4.64  -3.40  -2.66  -3.52  -4.62  -1.17   1.74   2.39   2.99   3.53   4.01   4.45   4.89   5.34   5.77   6.18   6.56   6.96   7.43   7.99   8.65   9.40  10.27  11.16  11.96  12.68  13.31  13.86  14.32  14.73  15.09  15.44  15.75  16.03 
 -9.58 -10.14 -10.61 -10.72 -10.57 -10.52 -10.58 -11.69 -13.41 -14.78 -15.63 -15.66 -15.58 -15.35 -14.82 -14.35 -14.12 -13.62 -11.99 -10.14  -8.91  -7.89  -7.18  -6.68  -6.29  -6.10  -6.23  -6.50  -6.76  -7.02  -7.18  -6.80  -5.90  -5.61  -6.20  -6.67  -6.64  -5.75  -4.47  -3.17  -3.18  -4.46  -4.55  -1.02   1.83   2.47   3.07   3.59   4.06   4.49   4.92   5.37   5.81   6.21   6.59   7.00   7.48   8.07   8.77   9.58  10.51  11.45  12.29  13.02  13.66  14.20  14.64  15.02  15.36  15.67  15.96  16.22 
 -9.63 -10.23 -10.70 -10.81 -10.76 -10.78 -10.87 -11.48 -13.04 -14.62 -15.29 -15.28 -15.26 -15.22 -15.21 -14.86 -14.16 -13.21 -11.61 -10.06  -8.87  -7.91  -7.20  -6.64  -6.26  -6.12  -6.28  -6.55  -6.80  -7.05  -7.19  -6.77  -5.87  -5.71  -6.27  -6.63  -6.58  -5.65  -4.37  -3.09  -2.56  -3.81  -5.01  -1.27   1.92   2.55   3.13   3.65   4.10   4.54   4.96   5.41   5.85   6.25   6.64   7.06   7.56   8.18   8.92   9.78  10.77  11.76  12.63  13.38  14.02  14.54  14.96  15.31  15.62  15.90  16.16  16.40 
 -9.73 -10.36 -10.77 -10.80 -10.69 -10.79 -11.20 -12.43 -14.56 -15.66 -15.83 -15.85 -15.80 -15.70 -15.43 -14.62 -13.77 -12.99 -11.55 -10.12  -9.08  -8.16  -7.31  -6.62  -6.25  -6.18  -6.33  -6.58  -6.84  -7.07  -7.13  -6.67  -5.84  -5.80  -6.33  -6.62  -6.55  -5.58  -4.28  -3.05  -1.87  -2.20  -3.37  -0.47   2.01   2.63   3.20   3.70   4.15   4.58   5.01   5.46   5.91   6.31   6.71   7.14   7.67   8.32   9.10  10.00  11.04  12.08  12.98  13.75  14.38  14.88  15.27  15.59  15.86  16.12  16.35  16.57 
 -9.92 -10.49 -10.72 -10.63 -10.44 -10.64 -11.49 -13.34 -15.80 -16.57 -16.34 -16.34 -16.31 -16.12 -15.42 -14.23 -13.51 -12.96 -11.57 -10.21  -9.30  -8.34  -7.38  -6.65  -6.28  -6.24  -6.40  -6.61  -6.88  -7.12  -7.11  -6.55  -5.81  -5.90  -6.38  -6.67  -6.53  -5.47  -4.17  -2.98  -1.63  -0.88  -0.73   0.79   2.10   2.71   3.26   3.75   4.20   4.63   5.07   5.53   5.97   6.39   6.79   7.25   7.80   8.48   9.30  10.24  11.32  12.40  13.32  14.09  14.72  15.20  15.56  15.85  16.09  16.31  16.52  16.72 
-10.12 -10.57 -10.63 -10.32 -10.10 -10.42 -11.53 -13.81 -16.50 -17.06 -16.54 -16.48 -16.50 -16.26 -15.33 -14.02 -13.35 -12.96 -11.61 -10.31  -9.41  -8.34  -7.34  -6.65  -6.31  -6.28  -6.46  -6.65  -6.91  -7.16  -7.11  -6.44  -5.75  -5.95  -6.42  -6.71  -6.48  -5.35  -4.08  -2.87  -1.60  -0.35   0.87   1.55   2.19   2.79   3.33   3.81   4.26   4.69   5.13   5.59   6.05   6.47   6.89   7.37   7.94   8.65   9.51  10.47  11.59  12.70  13.62  14.40  15.01  15.47  15.81  16.07  16.28  16.48  16.67  16.85 
-10.17 -10.45 -10.36  -9.91  -9.78 -10.23 -11.45 -14.12 -16.97 -17.31 -16.62 -16.49 -16.51 -16.23 -15.22 -13.87 -13.23 -12.95 -11.64 -10.38  -9.42  -8.23  -7.26  -6.64  -6.32  -6.32  -6.50  -6.70  -6.94  -7.16  -7.08  -6.36  -5.68  -5.93  -6.46  -6.71  -6.39  -5.26  -4.02  -2.78  -1.44  -0.15   0.98   1.65   2.28   2.86   3.40   3.87   4.32   4.75   5.19   5.66   6.12   6.55   6.99   7.49   8.09   8.83   9.70  10.69  11.83  12.95  13.87  14.65  15.25  15.69  16.01  16.24  16.44  16.62  16.79  16.95 
 -9.79  -9.94  -9.80  -9.46  -9.54 -10.11 -11.47 -14.49 -17.38 -17.52 -16.76 -16.56 -16.50 -16.18 -15.02 -13.61 -13.14 -12.90 -11.54 -10.34  -9.35  -8.12  -7.21  -6.65  -6.35  -6.37  -6.54  -6.73  -6.96  -7.14  -7.01  -6.28  -5.63  -5.92  -6.52  -6.71  -6.30  -5.16  -3.95  -2.66  -1.27   0.36   1.13   1.74   2.36   2.94   3.46   3.93   4.38   4.82   5.26   5.73   6.19   6.62   7.07   7.59   8.22   8.98   9.87  10.88  12.02  13.13  14.05  14.81  15.40  15.83  16.13  16.36  16.54  16.71  16.87  17.03 
 -8.86  -9.04  -9.05  -9.07  -9.41 -10.07 -11.48 -14.63 -17.59 -17.66 -16.85 -16.53 -16.35 -15.94 -14.68 -13.36 -13.06 -12.76 -11.37 -10.23  -9.21  -8.04  -7.19  -6.65  -6.38  -6.40  -6.57  -6.75  -6.97  -7.13  -6.96  -6.16  -5.60  -6.00  -6.54  -6.69  -6.19  -5.03  -3.82  -2.50  -1.12   0.45   1.21   1.82   2.44   3.00   3.52   3.99   4.43   4.88   5.33   5.80   6.25   6.68   7.14   7.68   8.33   9.10  10.00  11.01  12.13  13.22  14.12  14.87  15.45  15.88  16.18  16.40  16.59  16.76  16.92  17.08 
 -8.13  -8.50  -8.70  -8.89  -9.42 -10.11 -11.37 -14.51 -17.65 -17.73 -16.88 -16.45 -16.19 -15.71 -14.42 -13.22 -13.00 -12.67 -11.30 -10.14  -9.12  -8.02  -7.14  -6.60  -6.38  -6.40  -6.57  -6.77  -6.98  -7.11  -6.87  -6.04  -5.58  -6.11  -6.57  -6.70  -6.14  -4.93  -3.67  -2.36  -1.02   0.52   1.28   1.90   2.51   3.06   3.57   4.04   4.49   4.94   5.38   5.85   6.30   6.73   7.20   7.75   8.41   9.19  10.08  11.07  12.16  13.22  14.10  14.83  15.41  15.84  16.15  16.38  16.58  16.76  16.93  17.10 
 -8.08  -8.62  -8.76  -8.81  -9.34 -10.07 -11.33 -14.57 -17.76 -17.68 -16.81 -16.48 -16.28 -15.69 -14.31 -13.13 -12.99 -12.65 -11.25 -10.11  -9.08  -7.97  -7.10  -6.58  -6.39  -6.42  -6.59  -6.78  -6.98  -7.05  -6.73  -5.91  -5.58  -6.13  -6.61  -6.76  -6.08  -4.81  -3.58  -2.26  -0.91   0.58   1.35   1.97   2.57   3.12   3.62   4.09   4.54   4.99   5.44   5.90   6.35   6.78   7.25   7.80   8.46   9.24  10.12  11.09  12.14  13.15  14.00  14.72  15.29  15.73  16.06  16.31  16.53  16.73  16.91  17.09 
 -7.86  -8.45  -8.60  -8.68  -9.19  -9.98 -11.45 -14.92 -17.98 -17.63 -16.74 -16.47 -16.38 -15.73 -14.24 -13.04 -12.92 -12.56 -11.23 -10.13  -9.09  -7.95  -7.09  -6.59  -6.39  -6.43  -6.61  -6.78  -6.96  -7.03  -6.63  -5.79  -5.53  -6.11  -6.62  -6.77  -5.96  -4.68  -3.48  -2.14  -0.81   0.64   1.40   2.03   2.63   3.17   3.67   4.14   4.59   5.04   5.48   5.94   6.38   6.81   7.28   7.84   8.50   9.27  10.12  11.06  12.07  13.04  13.86  14.56  15.13  15.58  15.92  16.20  16.44  16.66  16.87  17.06 
 -7.67  -8.17  -8.41  -8.72  -9.32 -10.06 -11.63 -15.29 -18.23 -17.65 -16.71 -16.49 -16.42 -15.75 -14.18 -12.96 -12.88 -12.54 -11.24 -10.18  -9.13  -7.97  -7.08  -6.57  -6.37  -6.43  -6.61  -6.79  -6.98  -7.01  -6.52  -5.65  -5.49  -6.14  -6.63  -6.70  -5.83  -4.54  -3.30  -1.97  -0.71   0.69   1.45   2.08   2.68   3.22   3.72   4.19   4.64   5.09   5.53   5.98   6.42   6.84   7.32   7.87   8.52   9.27  10.10  11.00  11.97  12.89  13.67  14.36  14.93  15.39  15.76  16.06  16.33  16.58  16.80  17.01 
 -7.55  -8.06  -8.42  -8.86  -9.51 -10.19 -11.80 -15.51 -18.36 -17.67 -16.70 -16.55 -16.47 -15.67 -14.03 -12.90 -12.90 -12.57 -11.28 -10.23  -9.19  -7.98  -7.05  -6.54  -6.33  -6.41  -6.59  -6.79  -7.00  -6.96  -6.40  -5.58  -5.56  -6.25  -6.66  -6.61  -5.70  -4.41  -3.13  -1.79  -0.59   0.73   1.47   2.12   2.72   3.27   3.77   4.23   4.69   5.13   5.57   6.01   6.45   6.87   7.34   7.89   8.52   9.25  10.05  10.92  11.84  12.72  13.48  14.14  14.71  15.18  15.57  15.90  16.20  16.47  16.72  16.94 
 -7.47  -8.12  -8.57  -9.03  -9.70 -10.37 -12.06 -15.77 -18.40 -17.64 -16.68 -16.55 -16.42 -15.43 -13.82 -12.91 -12.99 -12.57 -11.28 -10.27  -9.22  -7.97  -7.01  -6.49  -6.29  -6.39  -6.58  -6.79  -6.98  -6.89  -6.29  -5.63  -5.76  -6.35  -6.70  -6.55  -5.58  -4.30  -3.00  -1.66  -0.47   0.75   1.48   2.13   2.75   3.31   3.81   4.28   4.73   5.18   5.61   6.05   6.48   6.90   7.36   7.90   8.52   9.23  10.00  10.83  11.71  12.55  13.27  13.92  14.49  14.97  15.38  15.73  16.06  16.35  16.62  16.86 
 -7.41  -8.14  -8.65  -9.15  -9.91 -10.69 -12.63 -16.33 -18.47 -17.55 -16.66 -16.46 -16.19 -15.10 -13.64 -12.95 -13.12 -12.52 -11.24 -10.26  -9.14  -7.90  -6.99  -6.46  -6.26  -6.37  -6.58  -6.79  -6.97  -6.86  -6.21  -5.69  -5.95  -6.41  -6.72  -6.45  -5.41  -4.17  -2.89  -1.57  -0.34   0.65   1.44   2.13   2.76   3.34   3.85   4.33   4.78   5.22   5.66   6.09   6.52   6.93   7.38   7.90   8.51   9.19   9.93  10.74  11.58  12.37  13.07  13.71  14.27  14.76  15.19  15.56  15.91  16.23  16.51  16.78 
